ply
format ascii 1.0
element vertex 1373
property float x
property float y
property float z
property uchar red
property uchar green
property uchar blue
end_header
2.9952 1.39137 4.40187 166 65 37
3.06466 2.19099 4.61436 177 67 32
3.21942 1.3062 4.32248 178 74 45
2.47419 2.8255 4.94284 166 168 146
3.34163 2.02645 4.49705 188 178 151
2.7606 1.51874 4.49999 173 172 141
2.74182 2.03836 4.6532 174 77 45
2.85877 0.88692 4.2863 162 89 80
2.95948 0.710451 4.20735 29 69 105
3.27244 1.40863 4.33839 151 157 143
2.91679 0.868542 4.26636 175 179 162
2.63337 0.714965 4.28887 45 80 108
3.24627 2.13452 4.55153 173 65 29
2.84043 2.29438 4.70304 177 77 43
3.09744 1.44701 4.39216 59 31 19
1.76749 0.745455 4.52199 189 197 186
2.94627 0.875399 4.25838 169 176 158
3.07613 0.689438 4.17066 165 169 152
2.18513 0.729061 4.40931 184 195 181
3.16404 0.729803 4.15624 41 80 119
2.84725 0.753764 4.2509 41 86 128
3.18028 0.926025 4.21429 187 173 147
3.07248 1.56166 4.4323 52 30 17
2.0735 1.85946 4.77033 177 70 36
3.27303 1.40057 4.33512 166 167 151
3.24577 2.13475 4.5518 173 65 29
2.47457 2.82486 4.94311 166 168 146
2.95732 2.22903 4.65631 180 176 149
2.83161 2.25405 4.6947 190 186 159
3.24505 1.35468 4.32932 169 68 38
3.17145 1.58285 4.41662 177 69 40
3.2629 1.23296 4.28798 45 78 111
2.84052 1.5019 4.47788 161 56 26
2.63785 0.701669 4.28327 192 205 195
3.26101 1.18132 4.27302 51 75 101
2.68393 2.07854 4.68264 182 75 39
2.71981 1.38365 4.47369 178 80 51
3.20416 0.734323 4.15418 50 95 134
3.09389 1.57264 4.43164 175 66 37
2.93466 1.5802 4.47359 56 38 26
2.66674 1.1275 4.40889 168 173 151
2.11502 2.87314 5.03921 178 180 166
3.18942 0.709948 4.15031 164 167 150
2.88437 2.90402 4.85881 165 68 33
3.04716 0.703983 4.18208 39 75 111
3.36655 0.725787 4.12084 189 200 183
2.8408 2.29398 4.70314 177 77 43
2.76958 2.34282 4.73162 178 73 41
3.1527 2.26163 4.61384 177 67 30
2.66607 2.89719 4.9097 171 64 30
2.96588 1.05654 4.31037 172 177 155
2.62027 0.701 4.28812 186 196 187
3.16038 2.3002 4.62092 177 67 30
1.84726 0.731385 4.49565 120 128 117
3.20402 0.73175 4.15228 52 97 136
3.30723 0.765028 4.14005 171 166 136
2.78894 0.718869 4.25077 98 122 134
3.27118 1.40065 4.33619 179 180 162
2.88632 0.68781 4.21698 186 195 176
2.62146 0.703639 4.28926 179 189 180
3.35265 0.7112 4.11382 189 201 187
3.29488 1.47403 4.35191 42 68 103
2.6841 2.08021 4.68101 180 73 37
2.50483 1.46081 4.5475 35 31 32
3.23531 1.21975 4.28873 45 73 110
2.18977 2.0793 4.79714 183 75 39
3.2739 1.40527 4.33633 151 158 142
3.10673 1.41439 4.37531 175 175 151
2.08055 2.07538 4.82512 172 64 28
2.95722 1.54619 4.45618 173 68 38
3.1213 0.673571 4.15528 138 136 111
3.31108 1.56924 4.37291 41 71 109
3.11343 1.41458 4.37563 175 175 151
2.58081 2.50366 4.8253 73 92 107
2.56776 0.722253 4.30818 50 85 117
3.08477 0.697057 4.17088 53 84 115
3.40654 1.12823 4.22535 54 83 115
3.12508 0.719076 4.16327 45 87 127
2.46016 0.712664 4.33436 175 190 183
2.52432 1.52639 4.56079 42 67 98
2.06343 1.87823 4.78338 176 69 35
2.56016 0.692609 4.30061 178 189 181
3.20111 0.722434 4.15058 54 94 129
2.364 2.88493 4.98381 168 61 27
3.23289 1.21331 4.29065 43 73 111
3.26791 1.42348 4.34427 177 179 158
1.58213 2.25968 5.00381 176 70 30
2.13293 2.69171 4.98716 39 73 100
3.10693 1.41388 4.37616 179 179 155
1.96924 1.94784 4.82384 177 70 36
3.10443 1.41198 4.37813 178 178 154
2.7816 0.696964 4.24549 182 192 181
2.78801 0.723313 4.25383 126 154 165
2.75613 1.50924 4.4944 173 167 141
3.2102 0.716892 4.14481 168 169 151
3.12706 1.01728 4.25699 173 175 154
2.86065 0.79855 4.25887 170 181 167
1.96653 1.9553 4.81824 180 72 36
2.99891 0.682766 4.18649 166 177 161
2.99739 0.721149 4.19987 42 84 122
2.13266 2.68763 4.98617 40 74 99
2.76633 2.84525 4.87164 163 74 40
2.68847 0.734715 4.28224 35 74 115
2.85523 2.77165 4.82994 179 168 140
2.27443 2.2234 4.81223 178 126 105
2.76908 1.51875 4.4952 34 20 7
2.81635 2.81357 4.85075 162 70 33
3.2885 1.43468 4.33959 54 68 77
2.60581 0.701226 4.29123 186 198 186
2.80706 0.689827 4.23784 181 198 192
2.13498 2.79566 5.01777 178 174 149
2.83262 1.20508 4.38817 181 183 162
2.4646 0.731121 4.33802 38 75 104
2.70628 2.6323 4.82927 39 70 99
2.57757 1.49247 4.53723 48 82 119
2.88149 1.38813 4.42957 171 69 46
2.84173 0.924434 4.30225 178 181 164
2.55115 1.15021 4.44435 164 171 153
2.75658 1.50667 4.49442 174 168 142
2.97368 1.59863 4.46753 171 67 38
2.84583 2.84076 4.85157 187 188 170
3.29028 2.15706 4.54688 183 178 156
2.14199 2.76744 5.00517 172 68 31
3.32104 2.16095 4.54068 184 179 157
2.90633 1.41045 4.43071 174 68 42
2.99668 1.7815 4.51317 173 171 146
2.78038 1.45899 4.47418 146 139 120
3.29214 2.27807 4.58315 181 179 154
2.59593 0.734686 4.30389 39 81 123
2.83623 1.50595 4.47574 172 66 40
3.318 1.62001 4.38593 44 73 107
2.89853 1.44032 4.44141 176 68 39
3.17234 1.24198 4.31335 171 71 47
3.36272 0.799677 4.13829 191 196 176
2.32296 0.735355 4.37545 47 86 117
3.16005 1.22354 4.31072 166 70 45
2.76692 2.31898 4.7278 161 77 49
2.86192 0.866555 4.27856 179 180 164
3.27655 1.24271 4.28385 30 64 101
2.90666 1.41023 4.43072 170 66 39
2.78327 1.45279 4.47414 169 167 146
2.63011 1.09282 4.40767 169 167 144
2.84447 1.11881 4.36057 140 74 58
3.2575 2.26983 4.58358 182 180 155
2.68915 1.50215 4.51343 171 173 151
2.93288 1.3694 4.41135 167 69 42
3.25237 1.43364 4.35018 157 67 43
3.29116 1.43349 4.33869 47 71 105
2.97392 1.06477 4.30973 175 177 156
2.808 1.10594 4.36509 160 171 155
3.24811 1.55 4.38432 166 167 149
2.49955 0.741997 4.33218 40 84 123
2.49935 0.744429 4.33292 37 81 120
2.6539 0.699235 4.27941 193 206 199
2.24346 2.99291 5.04138 179 181 160
2.91188 1.57631 4.47823 171 171 145
3.24537 1.55791 4.38693 176 175 154
3.29512 1.47547 4.34995 40 69 103
3.00433 1.07113 4.30439 167 170 149
3.09531 0.669425 4.16033 175 178 149
3.21145 0.980549 4.22519 188 166 145
2.67595 1.45641 4.49097 170 174 151
3.33332 2.91286 4.74802 182 176 150
2.85901 0.902917 4.28946 129 80 63
3.25945 1.44273 4.35021 183 181 160
1.88723 0.698622 4.4763 189 196 188
2.06124 2.60182 4.97889 39 73 100
2.80359 2.94731 4.89061 92 97 90
2.91565 0.918657 4.28136 180 177 158
3.05917 1.51503 4.42277 52 30 17
2.62082 0.737277 4.29945 34 82 122
2.83505 1.32965 4.42542 162 159 140
3.07883 2.89601 4.80855 163 65 28
3.05829 1.51709 4.42117 56 29 18
3.27476 1.24226 4.28652 35 71 105
3.40694 1.17173 4.23912 47 78 109
3.13747 0.675808 4.15076 175 176 145
2.87526 1.07784 4.33938 132 151 145
3.31149 1.677 4.40727 166 165 135
3.14154 1.02568 4.25613 158 160 146
2.83513 1.39806 4.44407 137 60 44
2.76641 0.721059 4.25841 112 144 157
3.2257 1.99324 4.51703 187 181 157
2.85998 1.12344 4.35575 153 72 53
3.26556 1.18296 4.27126 45 73 110
3.06722 0.669578 4.16604 178 178 152
3.21402 0.746683 4.15347 51 94 128
2.82068 2.78897 4.84327 187 171 145
2.72193 1.0971 4.38422 39 75 111
2.81112 0.817778 4.27562 179 186 170
2.57714 2.11789 4.71803 180 174 150
2.03511 2.07167 4.83997 170 72 37
3.05523 1.50994 4.41782 52 30 17
2.7578 1.42022 4.47124 173 175 151
2.95393 1.58065 4.46571 165 85 62
3.29428 1.46397 4.34754 49 75 108
1.88747 0.696836 4.47812 193 199 187
3.3206 2.1672 4.54299 185 183 160
2.58769 1.47517 4.53143 47 86 119
1.3565 0.738782 4.62244 185 184 156
2.83625 1.39645 4.44519 141 58 40
1.51782 0.755312 4.58542 174 177 158
2.1647 0.727475 4.41355 189 197 184
3.06124 2.84211 4.79799 174 172 151
2.94874 1.42322 4.42144 167 62 33
2.52916 1.13664 4.44498 170 174 159
2.64133 0.736595 4.29494 35 82 126
3.08805 0.722625 4.17803 41 85 124
3.2515 1.42752 4.34883 168 67 39
2.30004 0.706281 4.37169 181 182 168
3.04095 0.679203 4.17615 182 185 164
3.16327 1.22091 4.30888 167 71 47
3.10818 0.994735 4.25399 161 168 152
2.84883 1.3072 4.41434 79 72 56
2.72596 1.50751 4.50981 178 74 47
2.25904 1.21548 4.53721 65 105 130
3.24589 1.47526 4.36428 169 65 36
2.69283 1.24908 4.42971 43 68 99
3.31293 2.15611 4.53989 181 181 157
3.31005 2.19365 4.55268 176 176 152
2.94985 1.10064 4.32585 167 75 52
2.63841 2.04215 4.68062 168 78 51
3.04133 1.05347 4.29185 32 61 91
2.59831 2.50354 4.82179 54 68 94
3.24743 1.37456 4.3359 176 71 42
1.51836 0.75442 4.58632 171 175 158
2.65992 1.40121 4.46674 74 92 104
3.24144 1.41709 4.35034 174 70 41
3.2432 1.41201 4.35454 171 67 38
2.6689 1.11554 4.40462 175 177 156
2.83312 0.849595 4.28143 175 179 165
3.0298 0.71665 4.18983 41 80 121
2.47594 1.4991 4.56901 36 70 107
3.27065 1.22173 4.281 44 76 114
2.60997 1.13421 4.42329 178 172 148
3.02105 1.43509 4.40616 64 16 4
3.00989 2.29602 4.65624 183 177 151
3.07733 0.644688 4.15602 190 198 175
3.38053 2.40314 4.59569 211 181 157
3.27989 1.47419 4.35285 165 163 138
3.02482 1.04965 4.28968 37 66 98
3.3586 0.718236 4.11586 187 198 182
1.88036 0.697706 4.47718 185 189 175
1.96435 1.88473 4.8008 176 76 44
2.94093 1.03798 4.30967 39 73 111
2.75811 1.41957 4.47179 172 176 153
3.28606 1.23774 4.27842 38 72 109
2.84487 1.00564 4.32449 36 72 108
1.99766 0.700571 4.44694 192 198 186
3.01088 1.79153 4.51854 183 189 177
2.97565 1.14389 4.33423 171 174 153
2.94994 1.17927 4.34816 174 178 155
3.30841 2.19433 4.55369 181 180 159
2.57858 1.47883 4.53609 34 70 104
2.66131 1.03474 4.38005 172 177 157
3.11427 0.976739 4.24952 168 172 155
2.84182 1.03549 4.33787 35 70 108
2.80222 1.96282 4.61684 178 75 42
2.16151 0.704469 4.40623 200 210 202
2.70685 1.42857 4.48713 178 76 53
3.03029 2.7959 4.79218 181 176 147
2.15891 0.760286 4.41901 46 94 134
2.79935 1.39503 4.45415 174 176 154
3.3209 0.73047 4.12475 189 192 171
3.15422 0.672586 4.14589 175 175 149
2.72072 1.50945 4.51171 176 72 45
3.34097 2.91691 4.74565 187 180 152
3.29003 1.42462 4.33686 54 72 86
3.08296 1.74432 4.4788 135 73 52
2.95688 0.834161 4.24472 171 179 164
2.99292 1.64209 4.47543 176 68 39
3.23901 1.46776 4.36412 172 69 38
2.70803 1.28466 4.44563 177 176 148
3.12172 2.29892 4.51607 195 177 153
2.06576 2.0799 4.83262 182 73 40
3.27103 1.42684 4.34339 172 179 163
3.14322 0.961849 4.23844 180 182 158
2.99101 1.37213 4.39594 168 67 39
2.93619 2.97866 5.13926 174 180 168
2.65531 2.38016 4.77083 186 177 148
3.21743 0.675602 4.13137 177 179 155
2.54454 0.747677 4.32328 36 81 120
3.16421 1.2714 4.67988 42 32 22
2.24391 1.94822 4.75265 179 70 37
2.21151 0.702161 4.39265 191 195 180
3.2257 2.14093 4.5577 181 81 45
3.37117 2.22806 4.54683 172 64 28
3.12679 1.6721 4.44765 178 67 37
2.98098 1.27355 4.36697 170 66 39
3.12422 1.67415 4.44778 168 59 26
3.32662 2.1553 4.53595 183 178 156
3.13254 1.47033 4.38957 175 175 151
2.86604 0.83233 4.26653 181 185 168
2.79682 2.8112 4.85546 169 76 42
2.80675 1.39897 4.45238 172 172 146
2.82101 0.977951 4.32278 173 180 162
2.51743 0.744487 4.32808 42 85 127
2.70527 1.09273 4.38691 168 175 159
3.37109 2.22849 4.54652 175 67 31
3.22419 1.39455 4.34548 168 68 42
2.84258 0.883394 4.28785 204 180 168
3.14666 1.23041 4.31743 178 177 156
3.18911 1.63403 4.42304 172 68 41
3.35681 2.19043 4.54215 182 180 159
3.22435 1.39509 4.34466 173 71 46
2.0521 2.71734 5.01331 39 70 98
3.11571 1.13512 4.29636 163 69 44
3.37317 2.22875 4.54412 173 65 27
2.67924 1.2804 4.44243 41 71 107
1.84015 0.721464 4.49503 193 196 179
2.51925 0.74766 4.32798 37 80 122
3.22332 0.718044 4.14297 167 169 145
3.34564 2.09388 4.51634 183 181 158
2.96387 1.38852 4.41051 175 71 44
2.97388 0.827575 4.2358 37 79 119
2.96394 1.38856 4.41039 175 71 44
3.1843 1.24485 4.30903 167 66 38
2.45457 0.759079 4.34897 37 85 125
3.38639 2.77983 4.70164 178 177 156
2.70715 1.38949 4.47132 176 76 50
3.2553 1.54445 4.37983 184 192 181
3.27942 2.289 4.53301 183 178 156
2.3524 2.11525 4.77362 186 176 149
2.86439 0.689064 4.22307 190 199 182
2.70279 1.40151 4.46012 177 79 52
3.20986 1.16888 4.63318 169 73 51
2.71762 1.09248 4.38457 118 139 140
2.85102 1.59245 4.49868 175 175 151
3.0272 1.7358 4.49431 178 68 41
2.58974 2.0998 4.69947 176 174 149
2.8907 0.948696 4.29788 174 177 158
3.29137 2.23482 4.57047 183 181 156
2.61364 2.51926 4.81984 41 68 97
2.75371 1.37304 4.45972 175 174 153
3.1725 0.724814 4.15729 39 81 119
2.91594 0.958308 4.29461 159 163 146
2.94288 1.03309 4.3102 37 71 109
2.08825 2.79118 5.02961 169 67 27
3.35088 2.04603 4.49993 178 178 154
2.86135 0.980455 4.31267 163 172 153
3.3245 2.36396 4.59732 182 180 157
2.55563 2.4975 4.82886 53 67 93
3.2453 1.30672 4.31315 178 180 156
3.32918 1.62984 4.38606 43 71 108
2.76907 2.84081 4.86392 167 67 31
3.2922 2.23434 4.5701 186 184 159
3.02287 1.4127 4.40032 169 64 35
2.55977 0.711031 4.30627 185 205 204
2.24079 2.34108 4.86203 174 66 30
2.68608 2.76698 4.87179 190 165 134
3.13596 1.52911 4.40474 174 82 59
2.67016 0.742199 4.2883 36 79 122
3.43272 1.18745 4.23852 72 90 100
2.74789 0.694623 4.25359 189 205 195
2.71412 1.20029 4.40521 33 63 89
2.51669 0.694189 4.31208 180 186 172
2.64031 0.740336 4.29631 40 85 126
1.48149 2.16122 4.99362 181 172 139
1.7484 2.31992 4.989 194 178 145
3.31238 2.39077 4.60826 185 183 160
3.32512 2.36041 4.59613 183 181 158
2.82363 2.04006 4.63387 212 176 152
2.85237 1.44095 4.45471 55 28 17
2.90373 2.06401 4.84144 176 66 33
3.24851 1.14767 4.26789 36 68 107
3.13676 0.976881 4.24167 197 185 163
2.69847 1.11979 4.39881 87 111 123
3.22788 0.982082 4.22129 165 73 52
2.60374 1.44288 4.50828 35 69 106
2.03672 1.91079 4.79187 181 172 143
3.2843 0.72848 4.13296 179 181 157
3.24816 1.80763 3.81345 182 180 155
3.5255 2.07245 4.85907 58 73 104
1.66618 3.03181 5.19421 180 173 145
2.85659 1.7697 4.53762 35 55 79
3.40822 2.36334 4.577 182 180 155
2.80844 1.5918 4.50804 175 176 145
2.81015 1.12117 4.36897 169 172 151
2.83049 2.22948 4.68574 180 176 149
2.71926 1.27586 4.43754 142 74 53
3.12641 1.59627 4.43134 174 65 36
2.98776 1.08783 4.31457 169 74 52
3.05633 0.679355 4.17332 172 171 143
2.46917 1.71567 3.24979 180 72 36
3.00256 1.97907 4.56771 177 68 35
2.82887 0.801765 4.26707 134 155 158
3.30143 0.705795 4.11892 184 187 166
2.58947 2.46356 4.81321 178 70 34
2.77125 1.48819 4.48656 108 99 82
2.99284 1.27192 4.37541 173 80 62
2.69758 1.11702 4.39533 139 154 149
3.40727 2.36351 4.57786 182 180 157
2.98732 1.08451 4.30371 163 75 51
2.00962 2.09887 5.013 172 64 26
2.63865 1.13367 4.42028 186 181 161
2.86389 2.19814 4.55219 180 176 151
3.38392 1.16074 4.23995 40 74 109
2.45737 1.50615 4.56659 40 69 101
2.79239 1.48932 4.48906 164 72 47
2.78972 1.49363 4.48594 174 82 57
1.87458 0.717202 4.48467 177 176 158
2.22424 2.1794 4.82252 179 69 32
3.54473 2.05093 4.4642 172 178 166
3.52269 1.1343 4.2081 181 183 162
3.54509 2.05063 4.46357 172 178 166
3.43269 1.16288 4.22953 178 186 173
3.20885 1.0152 4.23591 190 173 153
3.43273 1.16292 4.22973 178 186 173
3.25552 2.92698 4.79182 196 185 155
3.52794 1.84961 4.41124 186 184 161
2.61585 0.987388 4.37554 176 178 157
3.30328 1.60443 4.38806 164 162 147
3.30314 1.6038 4.38589 165 163 148
2.89658 1.56499 4.47056 176 172 147
2.65449 2.75116 4.88138 181 169 143
3.53502 1.95128 4.437 175 179 162
2.89807 1.18117 4.36072 160 160 136
2.88825 0.739514 4.24062 163 176 167
3.05356 0.630096 4.16452 77 82 78
3.02341 2.72387 4.78404 169 65 28
3.23269 0.996962 4.2254 179 171 152
3.56007 2.17591 4.49764 174 179 172
2.65651 2.75132 4.88128 183 169 140
3.25041 1.2202 4.28627 160 163 144
2.80976 0.843224 4.28709 177 180 163
3.2991 1.59535 4.3854 170 173 162
3.01826 2.72325 4.78437 173 67 28
3.52307 1.34662 4.26516 179 183 166
3.36761 0.688984 4.10923 77 90 106
3.01799 2.72273 4.78327 179 73 34
3.04867 2.80966 4.80389 50 65 84
3.30561 1.65741 4.40148 171 166 137
3.50877 1.04197 4.18241 178 182 167
3.46804 1.43038 4.29869 177 192 187
3.22023 2.03921 4.53288 182 176 152
2.41825 2.90296 4.98386 181 172 139
2.98899 2.31601 4.67113 184 75 36
3.40392 2.25247 4.55566 185 177 156
3.43294 2.33088 4.57194 184 180 155
3.55085 2.21374 4.51033 185 192 185
3.28192 2.30471 4.5963 181 78 47
3.01598 0.68998 4.19241 58 84 109
2.61906 0.949902 4.36675 170 176 164
3.30454 1.67376 4.40711 165 160 130
3.58088 0.968121 4.15537 186 186 160
3.22793 1.09261 4.2542 168 173 153
2.41856 2.90391 4.98566 180 171 138
3.22812 1.09336 4.25462 166 173 155
3.43128 2.33013 4.57227 183 179 154
3.40194 2.25126 4.55577 186 178 157
3.17341 2.35083 4.6369 183 177 151
3.2279 2.22111 4.58639 178 71 37
3.55373 1.82302 4.39624 58 82 110
3.22836 1.02796 4.23561 184 176 157
2.89323 0.710415 4.2299 167 176 171
2.94883 2.11873 4.62203 181 73 35
3.30321 0.972093 4.2022 165 173 158
1.79471 2.26775 4.9621 179 171 135
3.15996 0.978197 4.23701 179 172 153
3.17279 2.17756 4.58499 183 177 151
2.55333 2.87361 4.942 172 69 34
2.64047 1.06334 4.38963 184 174 149
3.27315 1.49899 4.36205 48 69 98
3.24498 0.933414 4.20398 157 78 65
2.88799 0.826036 4.26161 170 90 79
3.18473 1.48997 4.38239 179 177 156
2.95671 1.72292 4.50241 54 30 18
3.18889 0.968435 4.22719 181 170 148
1.78374 2.27372 4.96051 181 173 137
2.1046 1.91724 4.77563 179 169 134
2.41229 2.95457 4.9998 49 67 89
2.84671 2.01256 4.61578 177 170 141
1.90321 1.99516 4.85055 178 170 134
1.96068 0.720789 4.47185 89 105 105
2.71105 2.0088 4.64793 178 171 142
3.5112 1.13446 4.20787 180 181 163
3.26529 1.29257 4.30483 49 73 109
3.41789 2.41491 4.59991 184 178 156
2.99517 2.75097 4.79841 185 170 141
3.17017 0.952467 4.22643 187 174 155
2.41198 2.95628 5.00058 51 69 91
2.91085 1.98907 4.59383 179 172 144
3.62734 0.943579 4.14094 188 184 149
3.62756 0.943769 4.14208 188 184 149
3.44786 2.4122 4.59239 187 175 149
3.3839 2.08293 4.50927 185 180 158
3.24665 1.98663 4.5123 191 177 151
2.17355 0.684352 4.40883 101 126 156
2.06041 2.85806 5.0609 174 170 143
3.50168 1.16817 4.21897 175 182 166
3.28415 2.01815 4.5131 184 174 149
3.08059 2.76405 4.78463 44 65 94
2.89167 0.964348 4.2976 175 176 162
3.40578 2.15481 4.52553 185 179 157
1.94226 2.32306 4.93621 184 171 137
3.07253 2.1166 4.59114 186 172 145
2.74935 2.84946 4.89128 87 90 71
2.67141 1.10474 4.39531 166 75 56
3.25726 2.09124 4.54052 185 175 148
2.97253 1.36581 4.39533 68 31 22
3.03345 2.75827 4.79243 185 170 141
3.32516 2.11384 4.53686 185 179 155
2.37635 1.90999 4.70433 178 172 140
3.28982 1.55243 4.37423 151 156 150
2.56988 2.26281 4.75907 179 71 32
2.82803 2.86413 4.87444 182 166 133
3.22938 0.741609 4.1539 171 186 189
2.54684 2.09991 4.71793 182 74 36
3.15313 2.0916 4.5658 186 172 145
3.06804 2.11869 4.59303 183 176 150
1.76056 2.21803 4.95401 174 68 26
2.27741 2.83751 4.99992 173 169 140
3.39065 0.760778 4.12489 177 180 159
2.74374 2.0313 4.64622 173 82 51
3.4188 2.37968 4.58915 187 172 149
2.5898 1.10243 4.41188 175 171 146
2.88329 2.26064 4.67967 183 172 142
3.21251 1.03546 4.24108 165 72 54
3.25257 1.19842 4.27922 162 162 138
1.69781 1.99183 4.90957 184 171 136
2.90734 2.69447 4.8029 175 170 141
3.17601 1.00852 4.24186 152 66 51
2.93244 0.940357 4.28249 174 171 152
3.21704 1.05507 4.24519 188 180 161
2.10626 1.91717 4.77363 182 173 140
3.2341 2.11479 4.55374 181 174 146
2.74076 2.2957 4.72655 181 172 141
2.91294 2.25789 4.67188 182 74 38
2.74817 2.32948 4.73424 184 171 139
3.06919 1.62815 4.44762 54 32 19
2.95548 1.31717 4.38482 61 35 20
3.32502 2.11244 4.53316 180 176 149
3.28835 1.65792 4.40565 44 59 92
2.96632 1.62054 4.4706 64 31 16
2.27761 2.83718 4.99918 174 170 141
2.97616 1.70195 4.49174 84 45 30
2.86125 1.42474 4.43891 60 30 20
2.87927 2.26096 4.68058 184 173 143
3.01859 2.77707 4.80056 170 66 27
2.92848 1.49041 4.4415 55 28 9
3.29929 2.42337 4.62913 183 179 154
2.09182 1.92331 4.7812 181 170 138
3.05309 2.15539 4.60793 184 173 141
3.50132 1.1681 4.21865 175 179 165
2.58138 1.08768 4.36304 176 176 152
3.01815 2.77763 4.80171 169 65 26
3.16199 2.15995 4.5828 185 173 147
3.35859 2.09753 4.5193 178 75 42
2.86332 2.28332 4.69225 183 172 140
2.91322 2.4015 4.71513 183 172 140
3.18845 1.04509 4.2504 173 175 154
3.16999 1.0309 4.25183 178 177 156
3.4111 0.732396 4.1131 178 190 178
3.27545 1.35289 4.31908 53 75 112
3.57436 1.29777 4.24342 183 185 164
2.74667 2.32054 4.73186 183 174 143
2.85117 0.706613 4.23929 170 173 154
1.90188 0.740463 4.49211 179 183 168
3.65648 0.916634 4.44929 182 181 150
2.43957 0.701104 4.34361 63 81 85
3.23969 1.99285 4.51586 181 175 149
2.38922 2.86649 4.98068 170 66 27
1.69529 1.99371 4.91361 185 172 137
2.94364 0.929558 4.27615 172 175 156
3.05318 2.15 4.69691 187 177 150
3.21795 1.05949 4.24644 175 173 152
2.45056 2.39671 4.82702 183 170 136
2.88101 1.28875 4.39538 175 82 51
2.9717 1.70936 4.49668 57 33 21
2.95728 2.37119 4.69411 170 67 32
2.85375 0.694928 4.23487 185 184 166
3.35968 0.799592 4.14051 185 192 184
3.38185 2.82602 4.73088 187 179 156
2.80051 1.53714 4.48351 80 21 5
2.97224 1.70911 4.49554 58 35 21
3.4238 1.1071 4.21574 177 187 178
2.88464 2.03105 4.61074 176 70 30
2.95722 2.3897 4.70411 182 72 35
3.22298 1.01174 4.23234 160 68 53
2.9045 2.1502 4.82115 184 81 48
2.89324 1.39724 4.42441 61 35 22
2.90186 2.21215 4.66125 183 176 148
2.80525 2.40506 4.74202 183 172 142
3.19429 1.0152 4.23982 169 76 59
3.19428 1.0153 4.24003 168 75 58
2.75542 1.29344 4.43351 158 100 76
3.57401 1.25458 4.22865 72 54 18
2.93552 2.35792 4.69596 186 175 147
2.46672 2.38399 4.81924 174 76 39
2.38869 2.86657 4.98103 171 67 28
2.90374 1.34485 4.40498 67 33 21
2.78642 2.93081 4.90245 46 64 88
2.92559 1.55315 4.4574 51 33 19
2.96256 0.959103 4.68502 160 78 56
1.97654 2.99517 5.11875 45 73 97
3.40614 0.79037 4.12952 187 194 186
3.73508 0.814514 4.08204 190 176 141
2.47082 2.3899 4.8192 169 65 30
3.01068 1.46491 4.41548 167 77 51
3.01742 1.4966 4.42202 71 27 16
2.92511 1.55463 4.46314 55 36 22
2.4623 2.85882 4.96113 172 66 26
3.64319 1.02768 4.15848 189 183 147
2.88258 1.28389 4.39411 169 75 47
3.43258 1.17968 4.23475 56 86 124
3.27463 2.07131 4.53233 178 69 36
2.38223 0.715228 4.3615 166 172 158
2.38248 0.715509 4.36209 166 172 158
1.99561 2.11052 4.85591 178 72 32
3.12087 1.51389 4.40309 56 26 15
2.7213 2.74512 4.86453 182 171 139
2.97897 1.40876 4.40569 61 33 19
3.73533 0.814567 4.08247 198 185 151
3.4282 2.80656 4.71468 181 179 156
3.05738 1.62497 4.45077 58 32 19
2.8757 0.893152 4.28311 170 168 147
2.721 2.74478 4.86387 183 172 140
2.82094 1.54307 4.48728 58 22 6
3.10018 2.73735 4.76886 42 63 92
2.04234 2.81575 5.05279 185 166 136
2.02499 2.15975 4.86428 188 175 143
3.22259 0.914254 4.20246 175 176 158
2.81931 1.54136 4.48259 157 75 51
2.06297 2.31086 4.90062 181 173 137
2.06792 2.05062 4.82463 185 169 136
3.52014 1.26781 4.2434 65 58 52
3.51977 1.09585 4.19088 70 55 26
2.87501 1.32568 4.40742 57 35 24
3.26209 1.57999 4.38756 46 68 107
2.97499 1.98909 4.57947 182 175 147
2.03571 0.728837 4.45324 181 187 173
2.78897 1.95737 4.61355 184 170 141
2.78664 1.96083 4.61505 181 172 141
3.27458 2.19223 4.56651 182 178 153
2.76198 2.7975 4.86858 179 169 134
2.86338 0.929423 4.29474 178 176 155
2.07406 1.93563 4.98055 170 75 31
2.92208 1.32927 4.39548 179 75 46
2.72185 2.03116 4.65192 182 175 146
3.54136 1.79037 4.38897 58 82 116
3.1251 2.70735 4.75517 43 66 97
2.62566 2.40606 4.78632 178 164 127
2.36256 0.732321 4.36929 52 95 130
2.98676 1.42804 4.41215 175 75 43
2.86315 0.92935 4.29547 178 175 156
3.27498 2.07046 4.53005 176 67 34
2.60197 2.40038 4.79029 174 74 38
2.73468 2.8609 4.89509 178 164 135
2.99109 1.661 4.47689 168 107 86
1.96373 2.15794 4.74365 183 169 132
3.02899 2.82671 4.81157 186 166 141
3.04688 1.48122 4.41042 168 71 38
2.88353 2.185 4.65676 181 77 40
1.64513 2.02872 4.94108 195 164 133
2.35816 2.82811 4.97466 181 176 144
3.50138 1.12309 4.20814 52 49 42
3.36389 0.651164 4.09856 125 123 102
3.16749 1.00228 4.24211 165 89 75
2.89816 1.0616 4.32485 164 172 159
3.5055 1.9014 4.42918 49 79 115
3.50688 1.89525 4.42535 43 72 112
3.22285 0.914703 4.20516 176 177 159
3.21953 1.30589 4.3188 177 71 45
3.53995 1.78696 4.37845 50 76 111
3.2636 1.38162 4.32946 176 174 153
3.23614 1.37183 4.33296 175 70 41
3.23502 0.739123 4.15192 185 196 190
2.90585 1.31685 4.39779 57 38 24
3.4145 0.759993 4.11856 178 183 163
3.48988 1.07602 4.1955 55 48 38
2.60219 2.4003 4.79 172 72 36
3.37417 0.808102 4.13994 51 79 116
3.50222 1.17833 4.22051 181 187 173
3.49047 1.07602 4.19549 51 42 33
3.11464 1.50496 4.37532 63 36 27
2.99911 1.41125 4.40183 69 40 26
3.23447 1.36904 4.33256 177 73 46
3.12467 2.24649 4.61688 179 69 32
3.26688 1.48367 4.35986 176 174 151
3.55788 3.00502 4.74305 51 89 126
3.07037 1.56371 4.42901 56 32 20
2.29224 2.8572 5.00264 47 68 87
2.4486 0.720139 4.34607 54 90 114
1.69853 0.768347 4.55538 59 95 127
2.9242 0.695183 4.21788 55 76 93
2.7603 2.10573 4.66767 180 175 146
3.26603 1.48317 4.35816 177 177 153
3.27134 2.19726 4.56716 182 178 153
3.49871 1.12084 4.20996 40 36 25
3.82738 0.249957 3.87733 208 200 163
2.2279 0.717365 4.402 180 183 172
2.78837 2.78953 4.86033 181 168 136
3.54086 1.79059 4.38946 57 81 117
2.91117 1.2919 4.3881 173 75 46
3.0482 0.644043 4.16986 169 156 121
3.30535 1.48834 4.35327 38 66 105
2.15706 0.710078 4.41755 186 192 178
3.20428 0.998582 4.23232 163 77 60
3.43469 0.762064 4.11687 184 191 175
2.99991 2.19691 4.6377 180 175 146
1.67959 0.748197 4.55265 181 181 153
3.27231 1.3933 4.3312 166 163 146
3.36078 0.758862 4.12821 162 168 154
3.1323 2.21198 4.60435 176 64 27
1.6146 0.786534 4.58508 49 85 107
2.79928 0.70575 4.25384 43 70 99
2.42475 2.80251 4.95153 174 170 141
2.94853 0.878076 4.26159 174 175 157
2.78231 0.704718 4.25676 48 74 101
2.98216 2.2213 4.65132 182 170 144
2.33126 2.95933 5.02249 183 181 160
3.35909 0.681757 4.10873 168 170 149
2.2115 2.26065 4.84582 175 68 26
2.25986 2.80052 4.99456 157 162 140
3.18793 2.1308 4.56916 181 72 43
2.87097 0.82791 4.26657 182 179 164
2.87445 0.888087 4.28217 173 168 149
2.85296 0.934924 4.30159 178 180 159
2.8089 1.35003 4.44981 176 174 149
2.92878 0.695238 4.21736 58 79 96
2.68715 0.712613 4.28406 53 80 109
3.20419 0.99858 4.23241 163 77 60
3.48692 1.15188 4.0962 177 181 166
3.49392 0.926373 4.15281 54 50 39
3.01718 1.44165 4.40648 59 33 20
3.42387 2.19577 4.53624 182 72 35
3.09532 1.47216 4.39562 176 72 43
1.64477 0.782115 4.56969 55 96 124
2.18791 2.76563 5.00231 177 166 138
2.51236 1.56761 4.56855 32 30 31
3.49845 1.27307 4.24962 46 42 33
3.20617 1.07621 4.25507 177 175 160
2.7783 2.79636 4.86499 174 166 130
3.27224 1.3936 4.33244 177 174 155
3.49394 0.926366 4.15277 54 50 39
3.30837 1.98024 4.50447 177 69 33
3.18738 2.13093 4.5695 177 69 40
3.07533 1.41396 4.38405 175 77 50
1.58673 1.98202 4.93377 179 171 134
2.17489 2.72249 4.99377 179 170 137
1.84111 0.732968 4.50527 181 189 176
2.62012 0.725217 4.30202 145 168 184
2.92173 0.67934 4.21361 172 174 160
2.90468 1.01396 4.30398 47 77 113
3.42644 0.681341 4.09221 183 184 166
1.64025 0.781744 4.58082 49 91 116
3.07053 1.40615 4.38242 177 74 43
2.93743 0.66429 4.20853 111 102 73
2.81079 1.4796 4.46673 175 72 37
3.26614 1.40108 4.33231 182 177 157
2.89137 0.676262 4.22247 183 184 170
2.86101 1.27012 4.39587 43 26 18
3.44966 1.26792 4.25702 53 82 116
3.33476 2.93651 4.77424 185 169 143
3.44413 1.13514 4.22231 57 86 120
2.84667 0.897618 4.29183 179 176 159
2.85771 1.50415 4.46408 179 71 42
3.24764 1.53043 4.37796 181 176 156
1.81309 3.02095 5.17286 188 174 139
3.28214 1.67867 4.41295 41 65 101
2.45962 0.72695 4.34131 47 82 110
2.87346 2.04812 4.62103 179 73 33
3.23673 1.54485 4.3838 160 70 46
3.50498 1.25623 4.24297 64 81 101
3.09681 2.81614 4.79395 180 173 145
3.20899 2.90493 4.7948 42 64 88
3.54111 2.26711 4.52729 55 70 99
2.9609 0.662814 4.1978 127 114 80
2.89589 0.685798 4.22094 170 176 162
2.96054 0.662236 4.19793 127 114 80
3.09777 1.75029 4.47819 182 175 156
2.91109 1.5818 4.47364 172 168 141
1.50332 0.73559 4.5989 191 194 173
2.13909 2.8737 5.04718 168 173 153
2.77964 1.52587 4.48998 82 29 13
2.36026 2.8573 4.98477 171 74 31
3.00704 0.626067 4.17489 140 119 74
2.85862 1.51504 4.46799 173 68 36
2.84723 0.897489 4.28963 174 170 158
3.58884 1.35875 4.2584 68 52 27
3.12741 1.41321 4.37355 171 167 142
3.03325 0.70772 4.19396 46 80 118
1.552 0.707833 4.57818 197 200 179
1.41814 0.733297 4.62317 181 178 147
3.55285 2.28857 4.53066 49 77 114
2.93925 2.85595 4.84445 171 65 26
3.37599 0.761994 4.12567 184 191 175
1.96313 2.77776 5.06358 173 72 28
3.03479 1.47207 4.4107 57 29 17
3.26847 1.4589 4.35166 180 179 158
2.8779 1.39207 4.42744 173 76 44
2.36343 2.85236 4.98351 167 74 31
2.77425 1.47191 4.4743 125 114 92
2.93805 1.05973 4.31422 171 174 157
3.31286 2.1303 4.5392 175 66 33
3.33161 0.769729 4.13801 172 174 160
3.05511 1.46016 4.39918 179 74 44
3.38152 0.696458 4.10795 190 197 189
1.78038 0.728953 4.52174 189 193 179
1.77994 0.729095 4.52349 188 192 178
2.90154 1.41518 4.4268 176 72 43
3.25109 1.30446 4.31031 182 181 160
2.99129 2.86131 4.83323 173 65 29
3.51006 1.23543 4.24324 65 80 109
2.98332 1.75962 4.50956 176 69 37
3.18085 0.95764 4.22445 188 177 159
3.75487 1.02667 4.13933 157 140 88
2.05692 2.90487 5.07575 176 145 116
3.40175 0.658234 4.09893 177 178 160
3.55541 1.25828 4.24699 97 89 66
2.42599 2.92614 4.99069 182 169 135
2.67854 2.76044 4.87888 171 82 42
3.00187 1.48739 4.42336 174 71 40
3.49221 1.11793 4.20683 52 44 31
2.78766 1.56965 4.50044 52 32 21
1.79761 1.86841 4.84866 173 67 25
3.37851 0.697569 4.10906 189 200 192
2.84581 0.896509 4.29061 175 173 158
3.20244 0.705042 4.15008 159 158 137
3.30683 2.35134 4.60427 183 179 154
2.89754 2.85458 4.85553 177 164 132
2.54712 0.740002 4.32507 47 84 126
3.1737 1.55549 4.40249 58 34 22
3.45944 2.20331 4.53212 178 68 33
2.88058 2.75261 4.82817 178 169 138
2.81245 0.815357 4.27794 178 180 167
2.71115 1.46824 4.48747 178 75 42
3.58436 0.39577 4.01475 183 186 157
2.01067 0.715535 4.45694 169 170 162
3.32127 2.90444 4.76965 181 175 143
3.16913 0.69442 4.15556 41 69 106
2.8679 2.42364 4.73087 182 73 34
2.36264 2.85243 4.98392 164 76 36
3.41682 0.684575 4.09872 190 191 173
3.52757 3.03917 4.76032 104 112 91
3.01265 1.47642 4.41912 170 72 45
3.75169 0.947452 4.11571 137 116 63
3.77425 0.204523 3.89812 102 102 76
3.24756 1.42672 4.34836 167 61 35
2.96178 0.712303 4.21213 51 86 126
3.75799 0.21113 3.90988 106 111 88
3.11838 2.81958 4.78974 182 173 144
2.06019 2.89879 5.07199 183 172 142
2.87279 0.994196 4.31125 41 69 106
1.82344 2.41518 4.99518 95 47 33
2.8849 1.08343 4.33396 156 160 146
3.00569 0.671005 4.19088 166 164 143
3.3106 2.90052 4.76892 176 171 139
3.02577 0.618929 4.16651 166 161 132
2.9504 1.50898 4.44391 180 73 41
2.16197 0.743567 4.42196 43 83 119
3.53546 1.23961 4.23529 56 53 36
2.0761 2.8186 5.04533 162 163 145
2.80479 1.41257 4.44869 173 172 144
3.24763 1.42617 4.34613 173 68 39
2.90952 0.664312 4.21417 153 147 123
3.56142 2.00853 4.44847 53 77 111
2.85804 1.13199 4.35479 167 81 56
3.3818 0.673157 4.10106 192 198 188
3.41956 0.677512 4.0958 192 194 173
2.99926 1.37896 4.39467 176 75 47
2.5303 2.92666 4.96485 177 171 139
3.35062 0.675444 4.1083 153 155 133
3.29215 1.39433 4.32953 45 70 110
2.98905 0.711018 4.20389 45 78 119
3.3329 2.04728 4.51041 187 176 156
3.53304 2.18141 4.50217 46 69 103
3.53174 1.23507 4.34691 184 183 162
2.99426 0.696822 4.1998 76 93 103
3.30094 0.671208 4.11585 197 200 181
3.30665 2.89707 4.76896 184 179 149
2.88159 1.05286 4.32691 55 85 121
2.88494 0.797961 4.25715 176 182 170
3.10608 1.72023 4.46721 176 71 41
2.72731 1.39995 4.46517 172 78 53
2.98392 1.32816 4.37874 179 78 50
2.98958 0.675351 4.19578 160 159 139
2.63491 2.0657 4.68417 175 73 35
2.85887 0.984908 4.31196 171 175 161
3.34012 0.683449 4.11225 182 185 168
2.63569 2.06619 4.68503 173 71 31
3.12163 0.697186 4.16743 43 82 125
3.29538 1.39178 4.32752 35 63 102
3.32983 0.688551 4.11536 190 193 176
2.80465 1.43261 4.45192 57 35 24
2.89906 0.97196 4.29842 174 177 160
2.11816 2.76736 5.02251 169 66 23
3.2562 1.52705 4.37442 177 176 158
3.37979 0.746364 4.12303 182 186 171
2.96678 1.04638 4.3046 137 152 155
2.78394 1.11485 4.36901 64 85 106
3.54112 2.13258 4.4878 61 87 124
2.96159 0.712374 4.21339 48 83 123
2.74529 0.722442 4.22699 41 67 90
3.32688 2.90236 4.76712 186 175 147
3.29914 0.664485 4.11498 194 196 182
3.50429 0.871924 4.13424 69 91 114
2.75691 1.20644 4.4008 166 81 52
2.20517 2.77991 4.99939 42 68 85
3.1064 1.71629 4.46593 175 70 40
2.77483 1.12175 4.37846 44 69 99
3.26028 1.37037 4.3273 176 174 153
2.83877 1.33601 4.42216 50 34 21
3.24529 0.652018 4.12685 217 225 214
2.95646 1.05526 4.30816 173 176 157
2.60901 2.49378 4.81787 58 66 85
3.53802 1.03092 4.17352 182 184 162
2.88171 1.05294 4.32708 55 85 121
2.6295 2.0428 4.67696 175 72 37
3.28955 2.15335 4.55222 183 177 155
2.94661 1.44018 4.42177 169 64 32
3.02155 2.15732 4.61672 174 69 39
2.89608 2.90998 4.86907 182 172 147
1.8525 2.71194 5.07062 168 166 145
3.30895 2.90592 4.77057 179 174 144
2.82564 1.07299 4.34547 43 73 107
2.8475 1.11918 4.35448 156 88 69
3.50456 0.87234 4.13696 64 86 109
2.58326 1.09662 4.41465 177 171 149
2.10607 0.690669 4.42543 199 202 191
3.24036 1.55733 4.38706 177 172 150
3.39293 2.35736 4.58991 206 170 148
3.15852 2.85245 4.78108 177 112 74
1.78355 3.03749 5.18528 187 166 135
3.17895 0.717132 4.15915 42 79 121
3.53391 2.18277 4.5058 46 69 101
2.22295 2.28991 4.85572 189 93 53
3.43742 1.23868 4.24905 43 77 115
3.32816 1.47621 4.34768 38 66 106
3.2454 1.40557 4.34299 172 66 40
2.69126 1.50248 4.50581 175 168 140
2.82604 1.07275 4.34348 44 74 110
3.34107 0.718421 4.12196 180 183 166
3.03002 1.45206 4.40618 174 80 52
2.95619 0.936738 4.2761 172 179 163
3.43586 1.26257 4.25423 44 78 116
2.55985 1.0258 4.39762 173 176 155
3.27772 0.644089 4.11632 186 192 180
3.18171 1.32708 4.33073 177 175 152
3.35017 0.675117 4.10571 161 164 137
3.32785 1.65074 4.39354 39 65 102
3.03694 2.26236 4.65097 181 176 147
2.92051 0.659053 4.20764 148 134 105
2.32183 0.737941 4.38239 73 112 141
2.64574 2.86059 4.91782 34 59 79
2.92468 1.57762 4.46792 56 39 23
3.15867 1.23878 4.31279 194 167 146
2.87486 0.661262 4.22219 203 206 189
3.26233 1.41205 4.3389 178 178 154
3.01956 1.59786 4.45049 175 68 36
2.77807 0.729984 4.26499 57 95 140
1.70061 2.25311 4.97865 179 171 135
2.602 2.49401 4.81779 62 64 79
2.78847 1.61983 4.51332 179 79 47
2.66347 2.85324 4.98252 170 67 26
3.33458 1.4733 4.34542 46 74 114
3.10631 1.71587 4.46457 174 69 39
3.33279 0.663491 4.10704 186 184 161
3.48399 1.44809 4.30275 48 76 113
2.88931 2.92005 4.87386 89 91 86
2.32174 0.737641 4.38122 55 92 121
2.72094 1.20849 4.40959 173 172 151
2.4374 2.89688 4.97979 143 58 21
2.04119 2.66481 5.01594 40 68 90
1.80776 0.734404 4.51569 173 179 165
3.16724 0.698782 4.15701 57 95 132
2.80792 1.14059 4.36768 145 87 63
3.76601 0.217733 3.90651 73 82 63
2.59628 2.84653 4.925 36 61 83
2.95962 1.08201 4.31449 141 60 41
2.7898 2.70836 4.83493 168 76 39
2.14243 2.10818 5.00362 166 71 25
2.98726 1.0713 4.30589 168 170 148
2.9502 1.60625 4.47217 55 32 16
3.39341 0.774849 4.12743 164 157 129
3.54527 2.16518 4.49769 43 72 106
2.93847 1.07074 4.31567 173 175 153
3.43356 1.24213 4.25265 45 78 119
3.00718 1.38046 4.38832 176 72 43
2.62899 1.49187 4.51466 40 66 99
3.83223 0.287798 4.69837 164 132 45
2.66042 2.8265 4.90051 158 159 145
1.77671 3.03859 5.19099 180 143 114
3.5035 0.907461 4.14873 69 90 111
3.19112 1.32098 4.33138 177 177 153
3.35632 0.748756 4.12591 169 168 147
3.5029 0.907046 4.14618 67 88 109
2.80782 1.14082 4.36896 145 87 63
2.71716 0.731695 4.28054 52 85 128
3.38604 2.10945 4.51713 187 80 48
3.15625 2.84058 4.78696 173 69 30
3.40318 1.1344 4.22502 36 71 113
2.66959 0.664841 4.27733 203 215 211
3.1462 2.85734 4.78866 181 121 87
3.42843 1.24533 4.25552 39 74 114
2.20472 2.78449 5.00054 45 72 93
2.87419 1.20387 4.37173 50 37 28
3.06361 2.8927 4.82875 185 122 91
2.81999 1.13711 4.36651 164 87 61
3.0784 2.87022 4.81775 171 65 26
3.07767 2.87058 4.81841 170 64 25
2.96777 1.15359 4.3319 175 174 153
3.08914 2.91109 4.83262 48 64 79
1.90859 2.01895 4.93556 180 167 132
2.38835 0.735611 4.36624 50 88 127
2.82587 1.21209 4.39772 166 170 147
2.78224 1.51065 4.48337 159 75 49
1.71021 2.09955 4.93582 185 163 126
3.29703 2.22849 4.5713 184 178 154
3.27286 1.24425 4.28782 45 73 112
3.15862 1.24003 4.31256 191 180 160
3.13658 1.89188 4.50932 182 79 46
3.07999 2.7962 4.79243 46 63 91
3.15516 1.57689 4.41194 169 68 38
2.99039 2.00471 4.57779 181 172 143
2.96341 0.720154 4.21369 51 87 135
3.56623 1.02852 4.27041 76 59 31
3.32604 0.736465 4.12885 180 183 164
3.42337 1.24728 4.2561 40 75 117
1.92093 0.725821 4.48041 182 188 174
3.22733 2.19161 4.57814 182 176 150
2.527 0.735013 4.32964 45 79 114
3.24678 0.754002 4.1522 63 87 113
2.86047 0.934907 4.29782 177 174 155
2.66402 2.85684 4.98818 173 67 27
3.20697 1.66307 4.40856 42 60 80
2.44001 2.9446 5.09549 158 65 22
2.97746 1.27562 4.3666 173 75 46
2.96346 0.726069 4.21564 44 83 126
2.74923 0.728676 4.27205 51 84 127
3.35125 0.716971 4.11749 183 189 175
3.14208 0.993382 4.24635 146 80 64
3.33463 0.753899 4.13311 164 160 135
3.18181 1.01359 4.24326 160 74 61
3.13566 2.84883 4.801 170 66 29
2.77883 1.60702 4.51286 175 72 39
3.43673 1.12573 4.22151 51 76 116
2.75256 1.14954 4.38724 89 99 108
2.44838 2.86736 4.96682 175 67 29
3.49694 1.3107 4.25394 54 78 112
3.07859 2.79659 4.79313 46 63 91
3.3534 2.22331 4.55796 177 70 34
2.50527 0.757187 4.33927 44 85 129
3.36739 2.08208 4.51363 184 178 156
3.10456 2.90519 4.82227 52 70 92
3.31958 2.34391 4.59989 181 177 152
2.86613 2.87619 4.86575 201 171 143
3.33072 2.11231 4.6815 187 175 149
2.27101 1.67507 3.41464 159 171 169
2.93719 0.886244 4.26551 176 177 161
2.37876 2.26433 4.79741 210 181 151
2.79274 1.22448 4.39737 167 126 106
1.99487 0.747866 4.46321 54 88 116
2.73233 1.17245 4.38261 60 77 107
3.19213 1.32317 4.33331 178 176 153
3.10481 2.90546 4.82284 40 61 82
3.50148 0.902013 4.1439 63 87 111
3.13209 0.974678 4.24039 181 179 158
3.2334 0.712507 4.14445 177 175 152
3.17601 0.722723 4.16037 41 79 118
2.86466 0.696976 4.35138 40 77 119
3.48874 1.70124 4.37147 29 61 100
3.43359 1.21254 4.24297 42 78 112
2.83442 2.21952 4.67819 182 175 146
3.34133 0.749372 4.12996 162 158 129
2.03799 0.715149 4.44987 184 186 172
1.6734 2.10022 4.9581 181 171 135
2.86254 2.87745 4.86846 203 174 144
2.86299 0.908932 4.29104 167 94 79
3.68409 0.738205 4.0737 118 107 85
2.91674 0.909623 4.27648 148 86 73
2.50464 0.776037 4.3431 41 83 125
3.43484 1.26274 4.25499 44 77 118
2.00835 0.74007 4.46227 52 83 101
2.80951 1.8414 4.57436 65 54 70
1.75947 0.588548 4.623 179 187 174
2.94742 0.650819 4.19625 149 134 93
2.88784 1.24584 4.38007 163 68 40
3.14477 0.989788 4.24244 165 113 99
2.07774 0.758688 4.45008 49 90 122
2.5336 1.05312 4.4064 63 86 100
3.35011 0.279542 4.12798 227 238 232
2.82474 1.06493 4.34372 37 70 105
3.27971 1.21928 4.2787 39 71 109
2.85132 1.60024 4.49406 177 173 146
2.99735 1.67618 4.48016 168 65 32
2.60109 2.84401 4.9235 37 61 87
3.16712 2.04372 4.54416 177 70 36
2.83178 0.806793 4.27022 176 180 166
1.65117 2.033 4.93889 176 163 128
2.79731 0.887384 4.2985 178 180 166
3.16207 1.51792 4.39492 118 109 92
3.39499 0.666809 4.0937 179 180 162
3.07125 1.35129 4.36558 174 172 147
3.0664 0.670394 4.17434 174 170 145
2.82626 2.66657 4.80954 178 171 142
3.42169 1.24226 4.25535 33 68 110
1.53006 2.02373 4.95181 173 87 38
2.48201 2.96062 4.94437 117 117 105
3.00023 1.43645 4.40864 57 34 20
2.83241 0.806849 4.26871 177 180 169
3.37171 0.83729 4.15161 42 76 114
3.27632 1.26879 4.29488 34 62 101
3.3723 0.836831 4.14775 37 70 111
3.02029 1.37023 4.3804 176 72 43
3.28597 2.92235 4.78117 196 176 151
3.59401 1.54062 4.31258 68 85 105
3.15146 1.58691 4.41578 174 69 37
2.70964 2.80386 4.97677 175 169 137
2.63044 2.00835 4.67002 180 76 39
3.29029 0.724873 4.13501 183 185 164
3.52605 1.23364 4.23375 60 81 100
3.0123 2.32704 4.67065 204 180 154
2.74365 1.52844 4.49772 177 76 46
2.99965 0.715279 4.20394 43 80 124
2.45611 1.43704 4.54671 45 69 97
2.89946 2.35044 4.69972 165 62 27
2.16084 2.99489 5.08164 146 142 131
2.60208 2.24238 4.88881 205 180 150
3.4967 1.92767 4.43729 48 33 40
3.15066 1.58766 4.41878 178 73 43
2.36353 2.09648 4.75725 183 174 143
2.56305 0.747822 4.32502 39 81 123
3.27212 1.55643 4.38017 168 171 160
3.28727 1.51793 4.36646 178 176 155
3.5803 1.16031 4.39605 183 180 161
3.52362 1.79298 4.44858 174 177 160
3.66496 1.29838 4.51113 180 179 158
2.89706 1.5496 4.44767 179 170 139
3.58014 1.16189 4.40002 185 183 162
3.58712 1.25034 4.41704 182 184 163
3.72677 1.03494 4.57884 89 69 32
3.22418 1.07746 4.24529 180 175 153
3.72666 1.03382 4.57894 78 60 24
3.52478 1.79728 4.45324 175 176 160
3.56912 2.23787 4.56943 182 179 164
2.89695 1.18021 4.34758 177 170 142
3.52383 3.0198 4.75516 185 185 173
2.94956 0.96482 4.26424 178 176 155
3.24511 0.972182 4.20992 184 170 141
3.29783 1.62923 4.39507 56 76 101
2.89303 1.56754 4.46059 184 173 143
3.51434 1.85355 4.46301 35 64 98
3.57641 2.24798 4.57352 184 182 167
3.53072 1.25398 4.36216 177 187 179
3.76358 1.08205 4.6407 94 76 36
3.1892 1.53891 4.3886 188 174 147
2.89235 1.57632 4.46065 183 172 142
3.81968 0.97578 4.73156 190 189 161
3.00534 2.69452 4.78106 185 170 139
3.86341 0.88728 4.79118 191 187 162
3.54598 1.92321 4.48847 185 183 168
2.83293 0.703667 4.25027 55 79 105
3.22785 1.09643 4.2501 175 179 156
3.44247 0.731752 4.18361 51 89 128
3.24495 0.972215 4.21102 184 170 141
2.85022 1.2862 4.38646 179 170 139
2.5745 2.89905 5.00406 186 170 136
2.52297 1.1247 4.4404 183 176 148
2.6305 1.15917 4.40969 181 174 146
3.45224 1.2901 4.30918 179 185 183
3.30118 0.973448 4.20822 179 180 164
3.29591 1.63533 4.41242 39 62 93
3.93839 0.897988 4.92848 192 189 158
3.38951 2.15893 4.53769 184 177 151
2.82134 0.992055 4.31039 173 176 155
3.35508 2.11315 4.52269 179 65 29
3.55979 2.21136 4.55681 47 76 110
3.3138 2.21826 4.56967 185 73 36
2.41509 2.94672 5.05561 185 172 138
3.28432 1.45865 4.35176 176 168 145
3.54664 1.10405 4.3449 64 51 34
2.51018 2.88553 5.02073 50 73 89
2.5752 2.89739 5.00099 186 170 136
3.25343 1.32898 4.3143 184 172 148
3.19955 2.11486 4.54853 182 72 35
2.83042 2.17591 4.6725 181 73 35
3.12437 0.998847 4.23986 173 82 64
2.96062 2.8969 4.86157 45 58 74
3.05195 2.12729 4.59213 188 174 145
2.58692 1.07178 4.39789 183 177 151
3.40285 0.771554 4.16698 180 171 140
3.18056 0.990943 4.22421 184 172 148
2.87002 2.79504 4.86951 47 63 76
2.87553 0.719373 4.23667 50 78 118
3.05256 2.71983 4.78138 181 170 138
2.86255 2.85584 4.88996 48 65 75
2.86782 2.85207 4.88898 49 66 82
3.40088 1.99039 4.49401 197 177 152
3.29832 1.61305 4.39239 169 167 142
2.51265 2.87882 5.01052 42 63 80
2.93202 1.70432 4.49191 180 167 133
3.39882 1.99207 4.4948 191 175 150
2.86858 2.27161 4.69486 190 171 141
2.95412 1.31371 4.37144 64 35 17
2.88066 0.719821 4.237 65 88 122
3.4173 0.707995 4.16124 67 101 136
3.41691 0.697372 4.16184 63 98 130
3.50324 0.694857 4.24646 185 189 172
3.1946 0.983008 4.21947 173 80 62
3.16808 2.09366 4.57228 185 176 147
3.50285 0.695063 4.25101 183 186 169
2.93028 1.70634 4.50108 183 168 135
3.19992 2.11298 4.54554 182 73 34
2.30812 3.01118 5.11056 56 70 81
3.23922 2.09809 4.54913 185 176 147
2.12736 2.97467 5.16774 191 172 142
3.89031 0.906724 4.83425 197 193 164
2.16619 2.02966 4.86612 189 173 139
3.77371 0.919173 4.66251 187 189 176
3.16782 2.09537 4.57446 183 174 143
3.28944 1.60822 4.39234 58 74 107
2.90134 2.08124 4.61032 187 174 142
2.834 1.46641 4.44899 61 32 14
3.51446 1.87575 4.46854 47 81 116
3.38881 2.13014 4.53187 193 179 153
3.39532 2.08772 4.52013 189 179 154
1.92161 1.94324 4.91737 192 174 138
2.92011 1.68459 4.49141 182 171 141
2.94011 1.53314 4.4347 70 35 15
3.24598 1.19385 4.27507 172 171 153
1.92545 0.740993 4.55156 186 190 175
2.93219 0.956333 4.26898 167 84 66
3.18775 0.96729 4.2203 187 175 149
3.43701 2.42263 4.60933 188 177 149
2.77212 1.04982 4.3452 39 70 101
3.02583 1.54126 4.42266 67 34 17
2.90681 1.6573 4.4749 183 172 140
1.92113 1.94545 4.91901 189 173 137
2.97274 2.32989 4.67499 185 73 33
1.92907 0.692339 4.55891 86 129 164
2.75423 0.709764 4.27439 51 81 107
1.96178 3.05454 5.25969 54 75 92
2.76352 2.82597 4.90607 183 167 131
2.75774 5.70041 12.3316 193 173 138
3.30549 2.08962 4.53587 184 172 146
3.19856 1.06203 4.24415 171 93 71
2.67861 2.8088 4.95534 173 70 29
2.58704 1.07167 4.39742 183 177 151
2.18709 2.01587 4.84549 190 174 138
2.90727 3.57857 7.89941 188 171 141
2.04747 2.92001 5.18952 167 155 129
3.8982 1.28658 5.35462 179 173 147
3.45871 0.713927 4.19927 54 92 129
1.88557 0.744747 4.56725 191 190 170
3.97846 0.953161 4.97743 108 78 26
2.92226 1.52597 4.44395 178 69 36
2.63441 2.84095 4.93846 43 65 86
3.52146 1.86578 4.46805 178 178 166
3.45854 0.713989 4.20103 54 92 129
2.53726 0.707055 4.33884 182 191 186
3.27058 1.29195 4.30562 44 70 107
3.17391 2.10916 4.56319 186 175 147
3.97862 0.953939 4.99244 105 75 23
2.90629 1.22636 4.35814 59 39 28
2.95519 2.37668 4.69037 183 74 35
3.07367 1.6035 4.43088 177 76 46
2.90009 1.34278 4.38764 68 35 20
2.92143 1.39566 4.40007 78 32 16
2.27148 2.88486 5.0934 180 171 140
3.71308 2.94328 4.78228 205 213 216
3.52452 1.86744 4.46647 184 183 163
3.18586 2.28428 4.61048 189 175 146
3.3475 0.79815 1.73599 96 86 59
3.60787 1.22473 4.43905 63 47 21
1.88653 0.743868 4.56459 190 189 169
2.95405 2.39439 4.69444 183 70 30
2.85587 2.815 4.87536 183 170 138
3.89048 0.909322 4.8435 195 191 162
3.24248 1.18199 4.27219 48 73 104
2.84622 2.7289 4.84112 190 171 138
3.53613 1.89339 4.47788 184 183 163
2.89908 1.231 4.36956 61 42 28
3.44471 1.15227 4.27363 50 76 113
2.921 1.3965 4.40241 78 32 16
2.86507 0.808844 4.25491 188 183 163
2.64398 2.40898 4.80833 184 165 132
3.16735 1.0251 4.23441 184 177 151
3.12026 1.51023 4.38911 66 32 20
3.02158 1.50483 4.40855 176 72 35
2.95403 2.39677 4.69471 181 72 31
1.52421 1.87855 5.12924 187 172 131
3.44163 0.787279 4.19244 60 89 121
2.93354 1.22337 4.34366 176 76 40
3.97843 0.953271 4.9711 101 71 19
2.74072 3.62601 7.74875 194 178 142
3.10988 1.47489 4.37933 64 38 23
3.52719 0.619604 4.27841 79 111 149
2.47203 2.41684 4.8715 185 70 26
3.71671 1.16139 4.56793 84 73 43
2.35083 2.86795 5.0526 181 168 134
3.378 2.82835 4.73298 186 176 149
3.02006 0.708316 4.20016 155 173 175
2.86892 0.92236 4.27257 191 175 150
3.85387 1.03693 4.7974 76 57 24
3.71312 0.978404 4.5566 68 53 30
3.24437 0.735698 4.14821 188 187 169
2.88316 1.32348 4.38891 127 52 29
2.33495 2.09949 4.80647 182 75 33
3.89004 0.795347 4.84948 83 93 95
3.0186 0.709369 4.20835 143 162 168
2.47684 2.42157 4.86595 183 70 26
5.78904 -3.55469 -13.3944 188 162 125
2.98285 1.42584 4.38805 180 73 37
2.92125 0.710619 4.24054 123 143 154
2.88841 1.3178 4.36277 178 79 48
3.45934 0.724391 4.20495 53 92 131
3.66302 1.33735 4.51149 71 54 24
1.95453 1.93616 4.89801 197 175 136
4.06121 1.01256 5.14137 126 105 50
2.08869 2.27739 4.98842 190 174 138
3.33644 2.04028 4.51208 193 175 151
3.66283 2.95875 4.76147 128 145 153
3.61728 1.59314 4.49907 38 43 49
2.81063 0.893063 4.29764 188 182 160
3.33312 2.4277 4.63394 187 180 154
2.93109 1.58262 4.46141 66 43 27
2.85767 2.83111 4.87628 183 169 140
3.02282 1.48308 4.40339 57 28 12
3.99969 1.62714 5.06448 160 161 143
4.06129 1.01301 5.1429 126 105 50
2.90332 1.31729 4.38339 63 37 24
2.49338 2.87345 5.01453 186 172 143
2.95949 2.65273 4.83395 45 65 92
1.88824 0.700526 4.56411 83 118 148
2.8861 1.27497 4.38516 170 67 34
2.9048 1.31376 4.38296 58 35 21
3.10589 0.353738 5.59749 204 193 187
3.64225 2.9785 4.74412 193 202 197
1.67243 0.778389 4.66058 63 95 118
1.74748 3.32236 5.46038 117 131 131
3.56162 1.96217 4.53222 51 81 117
4.05788 0.827755 5.1236 123 101 43
3.14812 1.47408 2.89334 174 76 49
3.42718 0.787597 4.1872 181 188 180
3.05174 0.696549 4.18336 55 79 113
2.8388 2.29585 4.71659 161 69 30
2.95401 1.97621 4.58097 185 172 138
2.74185 2.89204 4.93088 185 167 131
3.99976 1.6277 5.06809 162 163 145
3.26043 2.12274 4.55334 190 77 43
3.22203 0.916862 4.20126 178 173 151
2.1587 2.9843 5.16021 176 67 24
3.56468 1.37394 4.42548 190 189 171
3.05206 0.699347 4.1874 55 81 116
2.91478 0.760142 4.24697 50 88 127
2.18463 2.86869 5.11616 178 168 132
3.20374 0.997789 4.22589 177 82 64
3.66984 1.8853 4.59181 45 48 55
2.66146 2.89488 4.96223 183 166 136
1.97349 0.703121 4.53719 190 188 173
2.0189 0.74009 4.5206 188 186 171
3.4962 1.12637 4.32268 48 82 120
2.74064 2.90172 4.93641 168 86 46
2.81088 1.47624 4.44762 184 76 38
3.27293 1.50552 4.35839 42 65 97
2.83661 2.88458 4.86626 175 78 35
3.54132 2.02111 4.50856 42 71 111
3.02926 2.82903 4.82232 186 167 135
3.45488 0.643089 4.22301 157 151 127
2.14848 3.04519 5.18529 81 89 92
2.91002 1.28496 4.37379 185 78 44
2.91019 1.28529 4.37313 183 76 42
3.87393 0.820021 4.81087 77 62 31
3.2319 0.976527 4.21387 171 80 59
3.04266 1.59619 4.43119 179 69 36
3.51185 0.609077 4.28325 80 107 128
2.66278 2.91259 4.97134 185 172 138
3.36196 0.694799 4.1306 123 129 125
2.09414 0.748649 4.48217 58 92 117
3.03363 2.18053 4.61045 190 174 141
1.85194 2.99115 5.33627 193 160 127
2.87622 0.837587 4.25917 193 177 154
